# .PCD v0.7 - Point Cloud Data file format
VERSION 0.7
FIELDS x y z
SIZE 4 4 4
TYPE F F F
COUNT 1 1 1
WIDTH 818
HEIGHT 1
VIEWPOINT 0 0 0 1 0 0 0
POINTS 818
DATA ascii
-0.024225555 0.27552536 0.14696814
-0.015552045 0.27729389 0.14661342
-0.0071881819 0.27919725 0.14865817
-0.022413665 0.2823284 0.14752102
-0.014937567 0.28500649 0.14624217
-0.0050424999 0.28537068 0.14697167
0.0045101955 0.28630352 0.14812391
0.013244999 0.28799775 0.14888
-0.01018 0.29023999 0.1494
-0.0039299997 0.29220763 0.1494894
0.0047275862 0.29401898 0.14948346
0.014854444 0.29215589 0.14910372
0.02217 0.29328626 0.1496975
-0.0027699999 0.30410001 0.14997999
0.0037975002 0.30043748 0.14994749
-0.032997143 0.26315928 0.15903571
-0.025877453 0.26734838 0.15696892
-0.019765001 0.26955998 0.15783501
-0.026649248 0.27403581 0.15445575
-0.014820571 0.27532881 0.1549121
-0.0069357892 0.27897048 0.15468872
-0.023331458 0.28374985 0.15464498
-0.017492188 0.28849247 0.1539178
-0.0028482354 0.28091469 0.15510972
0.0050230557 0.28309008 0.15494029
0.015011549 0.28618023 0.15506296
0.024306037 0.28785929 0.15604131
0.031887777 0.28864893 0.15876891
-0.014746879 0.29478624 0.15511386
-0.0055380855 0.29535723 0.15063682
0.0049686204 0.29468349 0.15070485
0.014848051 0.29652977 0.15139514
0.025400002 0.29538158 0.15168311
0.032539301 0.29458579 0.15659235
-0.021172669 0.30583599 0.15882666
-0.01518431 0.30502033 0.15419382
-0.0049777785 0.30510584 0.15103252
0.0050787097 0.30536759 0.1511797
0.015060169 0.30537802 0.15208945
0.025222581 0.30482146 0.15388498
0.032833613 0.30507693 0.15765586
-0.022616053 0.31518477 0.15787314
-0.015012939 0.31500125 0.15442456
-0.0050627631 0.31515381 0.15404576
0.005063612 0.31520581 0.1544186
0.015072357 0.31495872 0.15553375
0.024567651 0.31518292 0.15676264
0.03182786 0.31265998 0.15867071
-0.021951249 0.32245502 0.15887314
-0.014935333 0.32357025 0.15793085
-0.0051289829 0.32421273 0.15820238
0.0049671698 0.32339638 0.15853171
0.014589355 0.32200322 0.15898676
0.021507502 0.32124501 0.15959999
-0.043667503 0.2555275 0.16586545
-0.035438478 0.25677598 0.16564339
-0.026356 0.25874203 0.16810901
-0.042296071 0.2623218 0.16696571
-0.035348833 0.26540735 0.16369267
-0.025038445 0.26357567 0.16328727
-0.016857501 0.26642197 0.16704354
-0.032065589 0.27307209 0.16751088
-0.027486719 0.2759164 0.16447309
-0.013968296 0.2724961 0.1637471
-0.0052058464 0.27499214 0.16514985
0.0039734207 0.27762869 0.16682369
0.011376667 0.27913332 0.16909833
0.025500834 0.27910748 0.16889334
-0.023806365 0.28178361 0.16594766
-0.018246999 0.28691626 0.16541825
-0.00081 0.28049499 0.16010499
0.0061332141 0.28172213 0.16242465
0.01526295 0.28392708 0.16457868
0.024915455 0.28440958 0.16412036
0.034779046 0.28548852 0.16555557
0.042723749 0.28818497 0.16877002
-0.021498974 0.29647565 0.16675794
-0.018929413 0.29354826 0.16300881
0.036710914 0.29485863 0.16360638
0.044876352 0.29541194 0.16824459
0.051589996 0.29738083 0.16946165
-0.024777105 0.30502707 0.16505028
0.038228575 0.30524796 0.16304485
0.043854039 0.30388892 0.16844213
0.051506668 0.30284774 0.16957222
-0.030543685 0.31593105 0.16824789
-0.027819237 0.31464815 0.16344814
0.028128888 0.31922555 0.16072221
0.03545076 0.3154349 0.1638232
0.041173525 0.31360707 0.1686659
-0.030395554 0.32216221 0.16854554
-0.026083255 0.32569289 0.16398408
-0.015395456 0.3286877 0.16073681
-0.0043126661 0.32891601 0.16063266
0.0050890907 0.32852229 0.16082138
0.015507056 0.32711819 0.16216859
0.025477158 0.32552192 0.1642504
0.033067223 0.32320476 0.16741194
-0.022706894 0.3319903 0.16681862
-0.014644146 0.33379808 0.16518222
-0.005014352 0.3348124 0.16518767
0.0048698811 0.33457723 0.16600358
0.014492543 0.33341369 0.16725124
0.023432916 0.33162582 0.16835999
-0.044135001 0.24821606 0.17625263
-0.036149643 0.24867214 0.17783894
-0.046295457 0.25445655 0.17442171
-0.034174882 0.25220257 0.17331417
-0.025338139 0.25529951 0.17434424
-0.015320851 0.25864977 0.17597598
-0.00813 0.25903288 0.17851429
-0.042648528 0.26262704 0.17441972
-0.038532149 0.26743037 0.17524001
-0.013627223 0.26291889 0.17171389
-0.0049090697 0.26731583 0.17561021
0.0029166667 0.26884249 0.17851168
-0.040815998 0.27885199 0.178554
-0.036971442 0.27488151 0.17445122
-0.0029881247 0.27130437 0.17161873
0.0055982149 0.27294406 0.17424805
0.014974125 0.27567568 0.17526877
0.024130544 0.27490273 0.1747966
0.030200001 0.27995002 0.17096499
-0.053960439 0.28725785 0.17844607
-0.044274766 0.28485048 0.17787191
-0.035041306 0.28480148 0.17294827
-0.025032289 0.28657666 0.1713348
-0.019369999 0.28698403 0.17028999
0.0175425 0.28034499 0.17059749
0.036126662 0.28212669 0.17195499
0.045095082 0.28323954 0.17491345
0.053052597 0.28629556 0.17719334
-0.061165627 0.2953425 0.17930625
-0.05511082 0.29531348 0.17684835
-0.045132671 0.29511219 0.17557642
-0.035113078 0.29491323 0.17385802
-0.025642406 0.29457164 0.17234504
0.049740002 0.29207999 0.17021
0.055828087 0.29440618 0.1734826
0.062019996 0.29684132 0.17794999
-0.060430001 0.30135 0.1798
-0.054131046 0.3043839 0.17799528
-0.045181993 0.30512372 0.17639722
-0.034918305 0.30505672 0.17532533
-0.028028615 0.30409029 0.17209621
0.046674445 0.30745518 0.17097594
0.055671595 0.30620751 0.17135479
0.063851796 0.30522463 0.17667101
-0.05182286 0.31144571 0.17947571
-0.044119325 0.31317818 0.17880547
-0.034309544 0.31509811 0.17534462
0.03999 0.31953999 0.17016999
0.045988899 0.31507367 0.1745548
0.054920979 0.31447765 0.17515381
0.062771454 0.31434098 0.17751707
-0.032102451 0.32275775 0.17601265
-0.028620688 0.32817039 0.17540313
0.036785319 0.32675067 0.17333023
0.04326069 0.32370025 0.17662455
-0.023561727 0.33298171 0.17448018
-0.014933058 0.33769929 0.17446168
-0.0064900001 0.33957317 0.17244422
0.0063157142 0.33955857 0.17062856
0.015700512 0.33832201 0.17202947
0.025333785 0.33616531 0.17375678
0.033335324 0.33417568 0.17637353
-0.0047518648 0.34098613 0.17542051
0.0049371012 0.34173536 0.17500058
0.014347143 0.34169859 0.17698468
0.024154816 0.34116331 0.17835553
0.0307 0.34024999 0.17987999
-0.041759409 0.24777238 0.18158001
-0.034757402 0.2462967 0.1850857
-0.027206855 0.24663343 0.18582372
-0.042579245 0.25452945 0.18218823
-0.035394829 0.25507298 0.18650453
-0.028706668 0.25531003 0.18645
-0.010922858 0.25743145 0.18242715
-0.0064895912 0.2559427 0.1857361
-0.044360001 0.26719335 0.18674666
-0.03548269 0.26568273 0.18563852
-0.0295 0.2617425 0.18917
-0.0019376191 0.26286379 0.18399236
0.0049820589 0.26520839 0.18498722
0.014279998 0.26779416 0.18680926
0.025364896 0.26922318 0.18649045
0.032327857 0.26916498 0.18811427
-0.062511533 0.27837002 0.18852922
-0.054233655 0.27548873 0.18584366
-0.044383932 0.27441439 0.18433873
-0.0391225 0.27135003 0.184145
0.016104139 0.27130511 0.18224898
0.024185417 0.27077997 0.18223836
0.035543047 0.27130955 0.18658523
0.045171726 0.27651307 0.18548758
0.050998747 0.2792075 0.18794501
-0.070750006 0.28836668 0.18914165
-0.065592915 0.2853348 0.18538228
-0.056510001 0.28270668 0.18205808
-0.048459996 0.28048667 0.18018334
0.047619998 0.28046602 0.18102798
0.055326607 0.28383574 0.18493372
0.061422497 0.28868753 0.18708916
-0.07131359 0.29536641 0.18813762
-0.066360332 0.29500443 0.18303886
0.059390001 0.29027501 0.18088499
0.065284908 0.29494962 0.18510698
-0.071045384 0.30250767 0.18866691
-0.064906031 0.304793 0.18491411
-0.058142733 0.30714545 0.18170908
0.068508007 0.30506435 0.18313029
0.070694 0.30586076 0.18792123
-0.062510006 0.31332603 0.18824486
-0.055519484 0.31544939 0.18414533
-0.046486571 0.31711742 0.18155114
0.048775002 0.31880623 0.1817525
0.053327501 0.31869593 0.18227035
0.067025572 0.3159267 0.18417343
0.070416361 0.31275547 0.18842182
-0.053195667 0.32207569 0.18739101
-0.044646472 0.32447848 0.18601763
-0.035760589 0.32626799 0.1830706
-0.028827501 0.32914251 0.18132
0.046736624 0.32554668 0.18459351
0.056046203 0.32155702 0.18643381
0.063155368 0.32184049 0.18645681
-0.040460002 0.33004001 0.18956
-0.03352822 0.33269048 0.1870749
-0.025156511 0.3351739 0.18515302
-0.015800426 0.33757365 0.18292257
-0.0089433333 0.33958504 0.18240167
0.037919126 0.33699149 0.18252705
0.042380199 0.33392081 0.18645635
-0.014392727 0.34254214 0.18770888
-0.0045796661 0.3430714 0.18558177
0.00506033 0.34498495 0.18505417
0.014859022 0.34681085 0.18473923
0.024957906 0.34524608 0.18499555
0.034066726 0.34211671 0.18583895
-0.091631189 0.37661824 0.18898411
-0.08952222 0.37620667 0.18916889
-0.09195745 0.38523233 0.18837564
-0.089342855 0.38445073 0.18909071
-0.092098184 0.3915664 0.18938273
-0.033939138 0.23818572 0.19705342
-0.027291665 0.23915583 0.19830501
-0.034992099 0.24438663 0.19475535
-0.024667244 0.24262725 0.19444312
-0.015042501 0.24569701 0.19541985
-0.0077580004 0.2478072 0.19668522
-0.031836666 0.25200811 0.19480667
-0.028763246 0.25716347 0.19509028
-0.010755001 0.252195 0.19019499
-0.0035213639 0.25421867 0.19428363
0.0042121746 0.25764781 0.19642045
0.011742 0.25937 0.19887999
-0.060740001 0.26956001 0.19921
-0.053996794 0.26791582 0.19607224
-0.045004077 0.26672688 0.19496915
-0.035141729 0.26695389 0.19473554
-0.029001085 0.26313391 0.19448523
0.0065447823 0.2612009 0.19217302
0.01520754 0.26324359 0.19469137
0.025019292 0.26705688 0.1948438
0.035038117 0.26746985 0.19491729
0.0426725 0.26795754 0.19664876
-0.071285382 0.2783677 0.19801691
-0.064855754 0.27465409 0.19522354
-0.057835773 0.27149075 0.19259079
0.039549999 0.27006999 0.19104999
0.04672078 0.27382436 0.19449747
0.051145554 0.27880275 0.19469555
-0.073653147 0.28516799 0.19545229
-0.069026664 0.28156444 0.19129667
0.055831261 0.28292432 0.19568047
0.062183715 0.28774777 0.19524343
-0.075731985 0.29489851 0.19495328
0.067312136 0.29439375 0.19525339
0.070338331 0.29941165 0.19413666
-0.074052878 0.30519012 0.19506194
-0.069153331 0.30886832 0.19076334
0.069760002 0.30001 0.19968
0.0714214 0.30526894 0.19524169
-0.071534544 0.31260821 0.19732228
-0.066420645 0.3159762 0.19396253
0.055455003 0.319695 0.19915751
0.068942413 0.31823102 0.19528481
0.070871837 0.31323409 0.19496104
-0.062828228 0.32317403 0.19650175
-0.055667538 0.32624903 0.19381998
-0.047565296 0.32894292 0.19186412
0.049073849 0.3282277 0.19448346
0.053964663 0.32293767 0.19511744
0.064174414 0.32216591 0.19501472
-0.053113692 0.33122951 0.19871897
-0.04440736 0.3329362 0.19564731
-0.035194453 0.33622867 0.19488509
-0.027776996 0.33907098 0.19187099
0.045119297 0.33506384 0.19495475
-0.03043 0.34022 0.19949999
-0.024121454 0.34216854 0.19547033
-0.015077945 0.34614718 0.19470716
-0.0057854541 0.34809002 0.19177242
0.0055214288 0.34914619 0.1909419
0.012889999 0.34953699 0.191228
0.026797619 0.34899002 0.19191855
0.035036102 0.34543973 0.19494815
0.040984701 0.3409588 0.19581118
-0.091049999 0.35982001 0.19959
-0.088839993 0.35950249 0.19926751
-0.0109 0.35001001 0.19993
-0.0045574582 0.35197982 0.19638899
0.0046878085 0.35279506 0.19564299
0.015259563 0.35238016 0.19563611
0.024283925 0.35148832 0.19604285
0.03028 0.35021499 0.19915
-0.09160576 0.36574125 0.1960068
-0.086905196 0.36567715 0.19678481
-0.093635388 0.37501368 0.19491924
-0.087154634 0.3749564 0.19530496
-0.101176 0.38837799 0.19924399
-0.095297895 0.385544 0.19528912
-0.08886569 0.38409114 0.19471209
-0.10157334 0.39401907 0.19854619
-0.095026113 0.39428252 0.19487554
-0.032936066 0.23665114 0.20458867
-0.025354568 0.23607165 0.20555282
-0.017416572 0.23841803 0.2070334
-0.034246672 0.24458261 0.20481479
-0.026241999 0.248207 0.208566
-0.013655749 0.24326336 0.20615792
-0.0059067868 0.24449022 0.20590287
0.004468611 0.24567167 0.20745945
0.013704 0.24854448 0.20835598
-0.031184444 0.25137335 0.20280331
-0.026026879 0.25537974 0.20635268
-0.013368636 0.25242999 0.20962086
-0.0074793329 0.25482267 0.20796731
0.0054378128 0.25484529 0.20223844
0.015144148 0.25543535 0.20410466
0.025316728 0.25475144 0.20614727
0.032852627 0.25840735 0.20603366
-0.062071104 0.26874608 0.20529613
-0.054874931 0.26581854 0.20511653
-0.044972401 0.26407889 0.20502432
-0.034944493 0.2645658 0.20509188
-0.028904798 0.26152119 0.20569561
-0.0066299997 0.26221666 0.20980501
0.018281667 0.26087999 0.20091666
0.0236175 0.26309252 0.20101917
0.036455829 0.26181266 0.20559084
0.043355878 0.26604649 0.20527487
-0.072429381 0.27682409 0.20573859
-0.066799626 0.27216962 0.20468391
0.047034692 0.27473012 0.20591116
0.05029333 0.27958667 0.20268333
-0.07730186 0.2845718 0.20501749
0.04889461 0.28167465 0.2080169
0.05368178 0.28595304 0.20404442
0.061323084 0.28822464 0.20172541
-0.080257066 0.29503959 0.20812963
-0.078948729 0.29452148 0.20327103
0.056007527 0.29469049 0.20679998
0.064386293 0.29550844 0.20404892
-0.080255553 0.30150443 0.20869334
-0.07838171 0.30534324 0.20434052
0.056181699 0.30498058 0.20784925
0.065808833 0.30476239 0.20591088
0.070323639 0.30619273 0.2010909
-0.080372497 0.315685 0.209655
-0.075330757 0.3151446 0.20538405
-0.069476672 0.31862667 0.20073335
0.055815123 0.31547785 0.20523256
0.065193564 0.31494933 0.20417868
0.070245005 0.31158665 0.20114833
-0.080329999 0.32030001 0.20984
-0.074054614 0.32355171 0.20808019
-0.065538481 0.32609633 0.20495079
-0.058974996 0.32922 0.20042251
0.049340468 0.32840237 0.20572762
0.051713619 0.32345071 0.20489743
0.062320001 0.32052001 0.20091799
-0.061875556 0.33036333 0.20857221
-0.054948837 0.33353162 0.20506869
-0.045151569 0.33683029 0.20492303
-0.036646597 0.33860359 0.20506264
0.046159275 0.33504453 0.20493504
-0.031631362 0.34080455 0.20548816
-0.024967121 0.3440122 0.20475058
-0.016747655 0.34857211 0.20352218
0.035746977 0.34682781 0.20499301
0.041492999 0.34168896 0.20476866
-0.091073029 0.35725877 0.20608999
-0.085136443 0.35550976 0.20572135
-0.079495557 0.35740888 0.2091511
-0.012675884 0.35111707 0.20620292
-0.0049568582 0.3541407 0.20497714
0.0051340535 0.35630074 0.20491147
0.014958651 0.35567015 0.20493664
0.025003687 0.35325822 0.20506814
0.030551247 0.35040247 0.20602
-0.09300065 0.36512637 0.20524831
-0.082351819 0.36499181 0.20450503
-0.079773337 0.36134335 0.20906
-0.1028779 0.37604159 0.20751527
-0.095949262 0.37471184 0.20393692
-0.085727639 0.37519917 0.20527183
-0.10364687 0.38487089 0.2047985
-0.095212899 0.38439888 0.205173
-0.089078665 0.38181135 0.20270801
-0.10256441 0.3923648 0.2021488
-0.097570427 0.3924787 0.20136432
-0.03043 0.23972 0.21027
-0.024912573 0.23804431 0.21125856
-0.019330001 0.23910667 0.21051668
-0.030918336 0.24268501 0.21042998
-0.02479825 0.24415651 0.2115528
-0.017798273 0.24553899 0.21048279
-0.0035343331 0.24583782 0.21297187
0.0049172542 0.24492085 0.21525131
0.01333239 0.24739417 0.21341
-0.021943184 0.25819775 0.21191183
-0.015556667 0.25657502 0.21146704
-0.0044232812 0.25488642 0.21342798
0.0054679671 0.25419268 0.21797286
0.015202947 0.25459173 0.21551526
0.023945615 0.25656313 0.21187791
-0.062893331 0.2683785 0.21527623
-0.05496316 0.26504144 0.21506438
-0.044940658 0.26364139 0.21502338
-0.034906838 0.26468912 0.21496502
-0.025217144 0.26393655 0.21557561
-0.014255752 0.26417002 0.21615671
-0.0047004656 0.26595962 0.21362323
0.0032874353 0.26276204 0.21713844
0.015708696 0.26084563 0.21766396
0.025734596 0.26246142 0.2149872
0.034153048 0.2661041 0.21355203
0.040964998 0.26901501 0.21039501
-0.07351242 0.27684787 0.21513776
-0.067850739 0.27180171 0.21497731
-0.0113375 0.27144125 0.21892875
-0.0068510338 0.27168414 0.21767521
0.03812312 0.27252811 0.21619716
0.042489599 0.27628657 0.21398962
-0.080250002 0.2889843 0.21463573
-0.078333937 0.28397459 0.21507791
0.046650693 0.28465217 0.21560468
0.051097274 0.28839457 0.21218635
-0.080773093 0.29495662 0.21517158
0.048445385 0.29404885 0.21861118
0.052137792 0.29517338 0.21415153
-0.083750941 0.30486131 0.21537165
-0.079604998 0.3074525 0.2101475
0.049694002 0.30182999 0.21934199
0.052188989 0.30511752 0.21500792
-0.090096675 0.31812668 0.21952666
-0.08604458 0.31490186 0.21429111
0.049617499 0.318315 0.21926251
0.051763885 0.31499243 0.21478356
-0.084618688 0.32460743 0.215115
-0.07650499 0.32766393 0.21089534
0.048645992 0.32627758 0.21578278
0.050875414 0.32238707 0.21322918
-0.082234286 0.33383083 0.21797629
-0.075021714 0.33496475 0.21512161
-0.065010332 0.33514592 0.21473561
-0.055070255 0.33539507 0.21473579
-0.044886183 0.33738476 0.21493779
-0.035501357 0.33806917 0.21540895
-0.029619999 0.33952999 0.21909
0.039554998 0.33978501 0.219155
0.044485949 0.33486351 0.21495502
-0.084987424 0.34631571 0.21596333
-0.076132275 0.34459126 0.21778889
-0.068273328 0.34037164 0.21919668
-0.030979002 0.34063199 0.21269099
-0.025100144 0.34376386 0.21466562
-0.018107407 0.34862706 0.21577998
0.029227143 0.34917712 0.21805
0.035276249 0.34546688 0.21513458
0.040885452 0.34114456 0.21216001
-0.091936521 0.35588548 0.21512771
-0.087947503 0.35107064 0.21439752
-0.077730447 0.35498762 0.21513999
-0.013203479 0.35159916 0.2147111
-0.0048997258 0.35482195 0.2146811
0.0049829166 0.35653323 0.21506163
0.0150828 0.35564184 0.2148588
0.024761597 0.35264724 0.2147606
0.030400001 0.35028002 0.21149667
-0.10057857 0.36874574 0.21135856
-0.096536823 0.36475992 0.2153863
-0.082990006 0.36700121 0.21583852
-0.079378396 0.36187282 0.21449159
-0.10119591 0.37362182 0.21143137
-0.094776466 0.37505725 0.21432391
-0.086876526 0.37291464 0.2133579
-0.034795001 0.38946 0.219935
-0.040606666 0.39816666 0.21978335
-0.037219752 0.39564171 0.219065
-0.04039 0.40176499 0.21983001
-0.039044 0.40113801 0.21953198
-0.061978094 0.26894093 0.22257762
-0.05467853 0.26746082 0.22463255
-0.04500391 0.26648912 0.22504778
-0.035428364 0.26756448 0.22433817
-0.025323808 0.26837623 0.22233595
-0.017219 0.26820353 0.22116849
-0.00072999997 0.26903334 0.22045334
0.0054399995 0.26647153 0.22467874
0.014888768 0.26517561 0.22511625
0.024409363 0.26644793 0.22429353
0.031832855 0.26842925 0.22179213
-0.072147578 0.27797592 0.22337727
-0.06597022 0.27411476 0.22572997
-0.058242857 0.27078715 0.22895859
-0.032440834 0.27112582 0.22873916
-0.024480736 0.27385914 0.22741465
-0.014864395 0.27571777 0.22482981
-0.0049389871 0.27403942 0.22518054
0.0012428572 0.27060285 0.22833143
0.027080383 0.27157307 0.22785732
0.034308847 0.27533722 0.22444381
0.040984999 0.27871251 0.22098249
-0.07551419 0.28474379 0.22509249
-0.069535002 0.280705 0.22956
-0.014880667 0.28131932 0.22852135
0.037303053 0.28424811 0.22686966
0.042158924 0.28572586 0.22215588
-0.083870858 0.29758713 0.22548893
-0.07813143 0.29311964 0.22558388
0.039508332 0.291695 0.228985
0.043628771 0.29532009 0.22428091
-0.091189459 0.30675706 0.22646891
-0.088759527 0.30306786 0.22348145
0.046275228 0.30491668 0.22524552
-0.09178254 0.31517935 0.22541685
-0.089783341 0.31275669 0.22050166
0.046887282 0.31490955 0.22502397
-0.091436416 0.32407719 0.22651848
-0.088831477 0.32669187 0.22234222
0.039960001 0.32925999 0.22966
0.044837471 0.32498893 0.22502179
-0.090124004 0.33425599 0.22928801
-0.087144218 0.33509195 0.22406581
-0.061566249 0.33925751 0.22132748
-0.054549236 0.33626461 0.22482143
-0.044867568 0.33347473 0.22516654
-0.035069872 0.33428985 0.22504604
-0.026873412 0.33736366 0.22642948
0.037827659 0.33687404 0.22698705
0.041931044 0.33340085 0.22365314
-0.090383753 0.34911376 0.22533502
-0.08811181 0.3446382 0.22469218
-0.073256522 0.3461034 0.22463015
-0.065109998 0.34434614 0.22538884
-0.058207996 0.34495634 0.22845668
-0.022821086 0.34237406 0.22335514
-0.015345524 0.34630328 0.22553341
-0.0078999996 0.34896907 0.22836183
0.019132499 0.34963 0.2287425
0.026152346 0.34754267 0.2260458
0.033608388 0.34312651 0.22417565
-0.09244626 0.35478675 0.22368655
-0.084627412 0.35618973 0.22748604
-0.077770583 0.35382935 0.22393607
-0.063432559 0.35471168 0.22796789
-0.05537384 0.35553092 0.22690812
-0.049008336 0.35861167 0.22884333
-0.01137 0.35075855 0.22175857
-0.0045853723 0.352532 0.22424315
0.0050339508 0.35381037 0.22504507
0.014838075 0.35270917 0.22473012
0.022296797 0.35115442 0.22283998
-0.092949405 0.36477029 0.22192058
-0.085760944 0.36346358 0.22283904
-0.06205884 0.3646304 0.22824655
-0.055092055 0.3649708 0.22535989
-0.045584589 0.36539137 0.2272263
-0.039765 0.369425 0.228405
-0.060663998 0.37138799 0.22902998
-0.055077206 0.37499225 0.22615589
-0.04478208 0.37504864 0.22472067
-0.036966067 0.37619627 0.22674249
-0.052884884 0.38421738 0.22744265
-0.044120822 0.38520172 0.22539164
-0.035927918 0.3850311 0.22405447
-0.050786246 0.39208877 0.22897875
-0.044438101 0.39505684 0.22562087
-0.037115086 0.39421764 0.22306472
-0.043248035 0.40238562 0.22494929
-0.039215002 0.40151003 0.22178376
-0.052689999 0.26997 0.23005
-0.046345003 0.26943752 0.23073876
0.0082933335 0.26968002 0.23037666
0.01397923 0.26907384 0.23065846
-0.062674858 0.27695173 0.23192202
-0.054735892 0.27503771 0.23431167
-0.044820115 0.27469105 0.2351063
-0.035234228 0.27532718 0.23353055
-0.026685767 0.27820233 0.23146845
-0.01034 0.27996999 0.23172
-0.0046732388 0.276822 0.23470083
0.0050338879 0.27436134 0.23501746
0.015133477 0.27491733 0.23507997
0.02450845 0.27586097 0.23258244
0.030668 0.27858204 0.23073599
-0.071845196 0.28774202 0.23280959
-0.065159529 0.28530768 0.23547427
-0.055864464 0.28378111 0.2385532
-0.04432391 0.28365546 0.23921175
-0.034693524 0.28460214 0.23773354
-0.024783911 0.28511137 0.23477769
-0.014546594 0.28502107 0.23454644
-0.0088857142 0.28151789 0.23819713
0.019476 0.28167599 0.239364
0.025595671 0.2845653 0.23693448
0.03288218 0.28573781 0.23258327
-0.084926985 0.29642844 0.23503539
-0.075430751 0.29235387 0.23482454
-0.066488333 0.29043335 0.23749167
-0.05917 0.29078001 0.23977
-0.031997368 0.29279208 0.23941949
-0.025848923 0.29434767 0.23898785
-0.015268977 0.29316023 0.23880982
0.028086539 0.29397076 0.23891041
0.035072036 0.29510164 0.2351127
0.04042 0.29796168 0.23082666
-0.091460899 0.30552372 0.23476431
-0.089510828 0.30074331 0.23592584
-0.042312499 0.30944249 0.239815
-0.030958001 0.30438 0.23986001
-0.028402723 0.30323455 0.23980546
0.029337501 0.30457252 0.23929083
0.035374794 0.3049202 0.23655844
0.041293461 0.30562884 0.23121232
-0.092383295 0.31513885 0.23512167
-0.043215852 0.31572196 0.23852588
-0.034240961 0.31566536 0.23944423
-0.026973076 0.31633192 0.23954962
0.035829209 0.3150281 0.23700039
0.0422078 0.31495631 0.23216906
-0.092711799 0.32500839 0.23510359
-0.050494999 0.329335 0.23796999
-0.044972744 0.32596096 0.23503187
-0.035086934 0.32540891 0.23508222
-0.025523497 0.32513243 0.23682159
-0.0186125 0.32890749 0.23917499
0.028491303 0.32521611 0.23938259
0.035183251 0.32507324 0.23538409
0.041047335 0.32287133 0.23129065
-0.09209349 0.33452645 0.23517019
-0.089667991 0.339362 0.233676
-0.054196972 0.33497271 0.23519842
-0.048528999 0.33081198 0.231567
-0.034458335 0.33080581 0.23055667
-0.023802824 0.33389735 0.23286454
-0.015926909 0.33655033 0.23683168
-0.0077979998 0.33930603 0.23960201
0.026299829 0.33583358 0.23799115
0.033551864 0.33448142 0.2335314
-0.085444599 0.34505272 0.23468119
-0.075586863 0.34753013 0.23485303
-0.069159999 0.34968999 0.23047
-0.05681197 0.34516326 0.23509413
-0.013554866 0.34251162 0.23279698
-0.0049487054 0.3450928 0.23510756
0.0050678942 0.34667003 0.23629633
0.01520526 0.34586436 0.23542626
0.024196945 0.34356201 0.23392183
0.031131249 0.34108248 0.23134625
-0.08408954 0.35160634 0.23109274
-0.071285792 0.3522405 0.23612946
-0.068541452 0.35601643 0.23419578
-0.053555835 0.35464033 0.23662445
-0.048699412 0.35824704 0.23299177
-0.00070999999 0.35048333 0.23054667
0.0052759997 0.35055354 0.23114097
0.012096001 0.35037401 0.23057601
-0.06559319 0.36494958 0.23479377
-0.053746518 0.36522332 0.23712
-0.04506721 0.36481455 0.23387133
-0.039499998 0.36926597 0.23136
-0.061927959 0.37376833 0.23517449
-0.053772569 0.37557375 0.23604257
-0.046011731 0.37505788 0.23202406
-0.038248572 0.37297288 0.231195
-0.054171935 0.3845453 0.23592339
-0.047883824 0.38549677 0.23342885
-0.051293429 0.39300403 0.23455514
-0.047302432 0.39523396 0.23402126
-0.046603996 0.40127903 0.232016
-0.0031592308 0.27917844 0.24097694
0.0039493339 0.27926534 0.24080603
0.013259999 0.27976999 0.24010666
-0.081711531 0.28871691 0.24645542
-0.075003557 0.28728276 0.24511518
-0.065978594 0.2882351 0.24543735
-0.052574206 0.28775159 0.24056263
-0.046076085 0.28787786 0.24075264
-0.037829999 0.28896332 0.24018501
-0.010396 0.28856 0.24049199
-0.0048207776 0.28516966 0.24330232
0.0050767055 0.28497973 0.2438672
0.014931314 0.28528535 0.24208072
0.021643331 0.28890887 0.24113335
-0.085361674 0.29470339 0.24470231
-0.061385296 0.29105473 0.24288234
-0.055436917 0.29464734 0.24338111
-0.044888724 0.29482207 0.24120806
-0.0360168 0.29568002 0.2408642
-0.021744167 0.29770836 0.24042417
-0.014328788 0.29719967 0.24064755
-0.0048842183 0.29494452 0.24376829
0.005127016 0.29514194 0.24660571
0.014839718 0.29479551 0.24545874
0.023920154 0.29524183 0.24248388
-0.090532504 0.3071717 0.24140835
-0.088213667 0.30445048 0.24568239
-0.051976908 0.30341122 0.24680267
-0.046080124 0.3052707 0.24211971
-0.035118513 0.30502021 0.24073723
-0.024307398 0.30542117 0.24066462
-0.014909698 0.30474803 0.24208759
-0.0052537676 0.30514294 0.24214561
0.0051200003 0.30557337 0.24322487
0.0147471 0.30476165 0.24443322
0.024881735 0.30493736 0.24224621
0.030719999 0.30954999 0.240155
-0.092097729 0.31635273 0.24448282
-0.089014776 0.31245869 0.24666129
-0.051365655 0.31564569 0.24883217
-0.047465164 0.31477383 0.24412163
-0.036488891 0.31147996 0.24016666
-0.023259999 0.31377831 0.24056414
-0.014986035 0.31482798 0.24311928
-0.0049787876 0.31491375 0.24484801
0.0051638959 0.31482667 0.24417025
0.014434845 0.3153275 0.24259922
0.025282223 0.31479502 0.24227029
0.031005835 0.31332833 0.24041502
-0.095424406 0.32495841 0.24504107
-0.053457532 0.3257705 0.24577627
-0.048440956 0.32275143 0.24228808
-0.02107 0.32123798 0.240712
-0.014772455 0.32476127 0.24262817
-0.0047261901 0.32535902 0.2452516
0.0050955541 0.32492507 0.2453092
0.014496623 0.32496592 0.2429143
0.023621088 0.32475653 0.24098301
-0.09298078 0.33297306 0.24422181
-0.086231843 0.33748552 0.2461935
-0.078902498 0.339425 0.2491025
-0.060385 0.33969 0.24798501
-0.057729244 0.33466038 0.24462909
-0.012354 0.33238098 0.24138701
-0.0050722044 0.33479935 0.24265949
0.0053184843 0.33510002 0.24367572
0.014875263 0.33506325 0.24236079
0.021596666 0.33371806 0.24092188
-0.082814008 0.34145248 0.2429076
-0.074758396 0.34349826 0.24471916
-0.064531513 0.34493944 0.24520235
-0.059296194 0.3439495 0.24176954
-0.0021371427 0.34058571 0.24056713
0.005020834 0.34146878 0.24109083
0.012964999 0.34087998 0.24053101
-0.06446407 0.35492828 0.24195404
-0.058666188 0.35529619 0.24113095
-0.062492758 0.36414823 0.24172828
-0.057290554 0.36542058 0.24167272
-0.060865 0.37090251 0.240785
-0.055953503 0.37474304 0.2412115
-0.05294 0.38254428 0.24056216
-0.081083998 0.28891903 0.25182599
-0.075303458 0.28787908 0.25335908
-0.065217927 0.28861892 0.25415966
-0.059620004 0.28974333 0.25334668
-0.083403274 0.29524779 0.25453696
-0.075321838 0.29236212 0.25796789
-0.065036193 0.29108852 0.25870955
-0.057229288 0.2949166 0.25530863
-0.085991271 0.30506435 0.25530598
-0.061170004 0.30732846 0.25843617
-0.056222189 0.30495721 0.25430894
-0.091507599 0.31751961 0.25221366
-0.088173613 0.31415036 0.25592536
-0.062392086 0.31526402 0.25675315
-0.056002863 0.314601 0.25236675
-0.092308246 0.32421419 0.25246748
-0.086152799 0.32570758 0.25728238
-0.079379998 0.32929 0.259345
-0.061902456 0.32444409 0.25686368
-0.058236007 0.32511574 0.25197598
-0.0911 0.33021 0.25071999
-0.084016278 0.33337221 0.25323725
-0.075160496 0.33553129 0.25553346
-0.063907914 0.33581412 0.2558319
-0.05928611 0.33304891 0.25160444
-0.071861245 0.34049872 0.25109375
-0.066052496 0.34097201 0.25140849
-0.080707498 0.29873502 0.26065999
-0.074810654 0.29649371 0.26304114
-0.065117396 0.29601449 0.26229316
-0.059438575 0.29656431 0.26042286
-0.082196958 0.30539027 0.26182455
-0.075285889 0.304741 0.2654838
-0.065665513 0.30494729 0.2635074
-0.05993 0.30021 0.26058999
-0.08291024 0.31526089 0.26212716
-0.075228304 0.31513125 0.26532736
-0.066870183 0.31488347 0.26339519
-0.081964374 0.32308939 0.26123625
-0.074669324 0.3250052 0.26277199
-0.066582069 0.32524264 0.26201096
-0.072367996 0.330778 0.26051599
-0.066465333 0.33132535 0.26076934
